# .PCD v0.7 - Point Cloud Data file format
VERSION 0.7
FIELDS x y z
SIZE 4 4 4
TYPE F F F
COUNT 1 1 1
WIDTH 178
HEIGHT 1
VIEWPOINT 0 0 0 1 0 0 0
POINTS 178
DATA ascii
0.0033396231 0.0032761556 0.0035482279
0.01495195 0.0025362235 0.0025537182
0.024224615 0.0040396545 0.0036141449
0.075211816 0.0038963493 0.003598616
0.084944658 0.0024529237 0.0025981755
0.096119963 0.003538531 0.0032498955
0.0025351078 0.014895393 0.0024314681
0.015037004 0.014649536 0
0.026225634 0.014046466 0.0020421771
0.032415327 0.017680977 0.0042120297
0.067132197 0.017134406 0.0039044588
0.074168228 0.013961188 0.0013859988
0.084984407 0.015023434 0
0.096859179 0.015182845 0.0025790378
0.0022506469 0.02507378 0.002725871
0.014887324 0.024859319 0
0.024929609 0.025000826 0
0.035938323 0.023868904 0.0017203664
0.044778585 0.024927557 0.0031682346
0.055307958 0.024762256 0.0030854307
0.064117767 0.023760948 0.0015838481
0.075125597 0.025131112 0
0.085154057 0.024805658 0
0.097007066 0.025180735 0.0027088642
0.0025205666 0.035107158 0.0024951396
0.015330915 0.035215933 0
0.025162222 0.034739457 0
0.035155334 0.035075895 0
0.04501022 0.035005596 0
0.055121161 0.035019867 0
0.065001883 0.035149716 0
0.075087018 0.035096649 0
0.085112005 0.035025999 0
0.096922129 0.034817547 0.00276394
0.003462729 0.046191428 0.0033323606
0.015029172 0.046800651 0.0025745041
0.025111113 0.046932891 0.0027113575
0.035025034 0.046727072 0.0024351848
0.045015734 0.046761081 0.0024413476
0.055110212 0.046951812 0.002618239
0.064810857 0.04689512 0.0029203419
0.074967645 0.04677809 0.0025867582
0.084958464 0.047052711 0.0026937956
0.096068613 0.045960933 0.0034330764
0.002593969 0.0022199107 0.015018131
0.014998497 0 0.014837299
0.024705036 0.0033939965 0.015016144
0.07461644 0.0032650535 0.015080816
0.08515919 0 0.014839047
0.097032912 0.0028696726 0.015027546
0 0.014987838 0.014776588
0.028512042 0.012470363 0.014946266
0.032356821 0.017314475 0.014834424
0.066856101 0.01703384 0.015141189
0.070911996 0.011777617 0.01549218
0.099000059 0.015036828 0.015129795
0 0.025287654 0.014986403
0.037606426 0.021324029 0.014725643
0.044913612 0.023840694 0.015301516
0.055204894 0.023592424 0.014853214
0.061814968 0.021104991 0.01497723
0.099000119 0.02489653 0.01514621
0 0.034540519 0.015057717
0.099000223 0.035076737 0.014997126
0.0023622066 0.046668142 0.014951805
0.01518875 0.048999831 0.015006663
0.025163759 0.048999831 0.014931357
0.034921709 0.048999831 0.015192891
0.045066871 0.048999831 0.014972112
0.054876402 0.048999835 0.01504262
0.065201014 0.048999831 0.015081647
0.075065389 0.048999831 0.014867118
0.085250273 0.048999827 0.014982518
0.096710376 0.046779905 0.014924639
0.0025509598 0.0024020663 0.024971588
0.015026833 0 0.025154464
0.024553852 0.0030841588 0.02488324
0.074438602 0.003381459 0.024927918
0.084904127 0 0.024959689
0.096947327 0.0026671221 0.025043806
0 0.014909519 0.025002731
0.028480362 0.012422186 0.024929391
0.032617882 0.017566379 0.02495308
0.066961005 0.016930141 0.024848811
0.071004547 0.011607906 0.024952307
0.099000104 0.014953 0.025172748
0 0.025135621 0.025362069
0.037758894 0.021405121 0.0253358
0.045131117 0.023887889 0.024859553
0.055390485 0.023557264 0.025142668
0.06185206 0.021081168 0.024892921
0.099000089 0.025022086 0.025024159
0 0.034910697 0.024757113
0.099000126 0.034865998 0.025010137
0.0026139007 0.046903092 0.024805816
0.014786357 0.048999831 0.025042566
0.025100892 0.048999831 0.02497673
0.034819841 0.048999831 0.024987854
0.044916738 0.048999827 0.025088344
0.054878511 0.048999831 0.024920333
0.064953066 0.048999835 0.024962256
0.074834801 0.048999835 0.024922194
0.085138761 0.048999831 0.025125232
0.096813351 0.046829671 0.0249718
0.0025148315 0.0025170494 0.034913443
0.014925294 0 0.035205666
0.024639677 0.003331607 0.035086144
0.074711502 0.0030674299 0.034941509
0.08507216 0 0.035037633
0.096848495 0.0027471038 0.034817711
0 0.015025675 0.035127398
0.028408883 0.012287577 0.035394937
0.032470495 0.017431719 0.035061289
0.067086846 0.016785072 0.03501277
0.071001709 0.011612467 0.034867182
0.09900026 0.014827549 0.034926664
0 0.025079982 0.035037309
0.037819553 0.021440687 0.035099559
0.04485989 0.023832453 0.035055105
0.05514399 0.023627441 0.034899045
0.061907556 0.021046428 0.03518454
0.099000208 0.02499784 0.035059717
0 0.035121456 0.035042159
0.099000111 0.03499835 0.034817006
0.002650856 0.046776094 0.035038762
0.014857812 0.048999831 0.034766234
0.024970828 0.048999831 0.035212521
0.035071522 0.048999835 0.034981195
0.045112394 0.048999835 0.035061393
0.054673307 0.048999835 0.035017043
0.065120496 0.048999827 0.03510686
0.075141504 0.048999831 0.034981716
0.085073262 0.048999835 0.034788888
0.096774437 0.046779767 0.034932479
0.0032165835 0.0034659477 0.046108752
0.015029412 0.0025345695 0.046840589
0.024195224 0.0040020635 0.045768894
0.075351231 0.0037054294 0.045788627
0.084942535 0.0025815098 0.046869516
0.095943592 0.0031383862 0.045921091
0.0025086945 0.014855021 0.046741258
0.015119833 0.014840797 0.048999831
0.025903611 0.014212438 0.047572553
0.032379091 0.017597919 0.045090009
0.067205749 0.017095787 0.045488376
0.073812619 0.014309444 0.047569148
0.085243039 0.014977111 0.048999835
0.096722886 0.015014725 0.046930421
0.0026705165 0.024819598 0.046977706
0.015194874 0.02491123 0.048999831
0.024955662 0.02497061 0.048999831
0.035839763 0.02374373 0.047371287
0.044941854 0.025159065 0.0463292
0.055289872 0.024813849 0.046321176
0.064243399 0.024157293 0.0477116
0.075136401 0.024978777 0.048999831
0.084886558 0.024982506 0.048999827
0.096717946 0.024913026 0.046821691
0.0025320982 0.035131309 0.046896715
0.015082477 0.035051279 0.048999831
0.024631755 0.035040215 0.048999831
0.035094015 0.034921337 0.048999831
0.044980738 0.034841489 0.048999831
0.054897852 0.034816582 0.048999835
0.064910308 0.035140052 0.048999835
0.074933738 0.035151031 0.048999831
0.08501628 0.034848966 0.048999831
0.096949846 0.034937583 0.046554316
0.0033027353 0.04590828 0.046098847
0.015043644 0.046749745 0.046747524
0.025007332 0.04670459 0.046826478
0.034982502 0.046588678 0.046855334
0.045024104 0.04674799 0.046711251
0.054896411 0.046799667 0.046669278
0.06501022 0.04676313 0.046795242
0.074967287 0.046775855 0.046782102
0.084928602 0.046798002 0.046674512
0.096012503 0.045964442 0.045940712
