# .PCD v0.7 - Point Cloud Data file format
VERSION 0.7
FIELDS x y z
SIZE 4 4 4
TYPE F F F
COUNT 1 1 1
WIDTH 98
HEIGHT 1
VIEWPOINT 0 0 0 1 0 0 0
POINTS 98
DATA ascii
0.0074493797 0.0073923301 0.0041860859
0.015094109 0.0037689756 0.002863849
0.025014143 0.0026749065 0.0024339068
0.034920361 0.0040973141 0.0030408041
0.042179961 0.0078397393 0.00438667
0.003833289 0.014960635 0.0028535349
0.015041556 0.015029013 0
0.024942806 0.014900871 0
0.035039768 0.015021734 0
0.045566726 0.015073803 0.0032014612
0.0027004143 0.02501275 0.0024807544
0.015010069 0.024957336 0
0.025000913 0.025242921 0
0.034982301 0.025105612 0
0.046793781 0.024937378 0.0027568059
0.0042009354 0.034900364 0.0029747933
0.015096661 0.035008952 0
0.024918459 0.034837414 0
0.035184506 0.034982298 0
0.045199476 0.034896422 0.0032197491
0.00783539 0.042105593 0.00420233
0.015112719 0.045545004 0.0029954126
0.025109177 0.046864886 0.0027870063
0.034947157 0.045204945 0.003188761
0.041660361 0.041743845 0.0043817274
0.0072937617 0.0072200079 0.014884775
0.014938079 0.0021990871 0.015011474
0.024913311 0.00020340907 0.014914197
0.035389505 0.0028372153 0.015080565
0.042194437 0.0076816175 0.014760639
0.0023057407 0.014691981 0.015080283
0.04673177 0.014782242 0.014860108
0.00019827696 0.02487582 0.015090091
0.048798356 0.025084088 0.014963581
0.0027108444 0.035155449 0.014972064
0.046232726 0.035294682 0.014926308
0.0076987543 0.042206381 0.014978166
0.014612729 0.046674181 0.014861144
0.025081029 0.04879291 0.015123857
0.035224117 0.046262708 0.015068766
0.041725893 0.041831024 0.014925787
0.0072430894 0.0072835544 0.025303189
0.014772498 0.00226999 0.024890682
0.02500906 0.00021089918 0.025282506
0.03521844 0.0027312131 0.025181705
0.042218994 0.0077113588 0.024920989
0.0022397398 0.014842412 0.025075622
0.046794936 0.01492823 0.02513616
0.00021028183 0.024911523 0.024995003
0.048804481 0.025110411 0.024998439
0.0026918307 0.035129048 0.02494042
0.046333898 0.035093389 0.024866803
0.0076404889 0.042150404 0.024972018
0.014809728 0.046745639 0.025050689
0.024848906 0.04880191 0.024901435
0.035318863 0.046218347 0.024999026
0.04178666 0.041767985 0.024903582
0.0073126652 0.0072120177 0.034934666
0.014992633 0.0021810015 0.035018086
0.024945654 0.00020204058 0.03510442
0.035183534 0.0027242391 0.035018262
0.042190753 0.0076841861 0.035060145
0.0022963795 0.014695843 0.0350114
0.046815198 0.014966749 0.03507261
0.00021402589 0.024958726 0.034999304
0.048801325 0.025076024 0.034875162
0.0026648848 0.03508845 0.034910347
0.046232253 0.035267618 0.034993406
0.0076843202 0.042191636 0.034918834
0.014642094 0.046680316 0.035027277
0.025242051 0.048788469 0.034989338
0.035215188 0.046266474 0.034970265
0.041714981 0.041841291 0.034946945
0.0074734795 0.007390046 0.045200732
0.015145283 0.0039479998 0.046568405
0.025049135 0.0028399392 0.046829425
0.034797255 0.0042684651 0.04655892
0.042109866 0.0078394627 0.045374319
0.003743056 0.015103278 0.046376694
0.014927198 0.014932987 0.048999809
0.024709947 0.015018273 0.048999809
0.034976944 0.014993078 0.048999809
0.045424383 0.015097572 0.046418674
0.0028103078 0.025069205 0.046899106
0.015036621 0.025045659 0.048999809
0.024943726 0.025014902 0.048999809
0.034989525 0.025147825 0.048999809
0.046687447 0.024987057 0.046720773
0.0041404618 0.034820497 0.046365697
0.015149253 0.03498254 0.048999809
0.025048664 0.0350083 0.048999809
0.03493337 0.034998778 0.048999809
0.045299832 0.034771856 0.04606986
0.0076887757 0.041969158 0.045290921
0.015060618 0.045407698 0.046413459
0.025037553 0.046715647 0.046627354
0.034794141 0.045233011 0.046157654
0.041694332 0.041709758 0.044982366
