# .PCD v0.7 - Point Cloud Data file format
VERSION 0.7
FIELDS x y z
SIZE 4 4 4
TYPE F F F
COUNT 1 1 1
WIDTH 178
HEIGHT 1
VIEWPOINT 0 0 0 1 0 0 0
POINTS 178
DATA ascii
0.0074323351 0.0073245787 0.0044516167
0.014965685 0.0039494885 0.0029056068
0.024966404 0.0027198938 0.0025230611
0.034822993 0.0040371926 0.0030850063
0.04206042 0.0077656205 0.004464271
0.003919417 0.015070782 0.0026787096
0.015054994 0.014894417 0
0.025074068 0.014720747 0
0.035220172 0.014976909 0
0.045481589 0.015000004 0.003132184
0.0026579984 0.024841717 0.0024609854
0.014936124 0.024804182 0
0.025085954 0.025034405 0
0.034857642 0.024906501 0
0.046628971 0.025007345 0.0026234854
0.0040270765 0.034872305 0.0030409093
0.01507657 0.034946464 0
0.025222627 0.035002813 0
0.035019819 0.0348817 0
0.045171704 0.035010189 0.00318199
0.0077134161 0.042045034 0.0043461462
0.015125495 0.045586299 0.0032246776
0.025077263 0.046735115 0.0027272922
0.035029646 0.045163348 0.0032481798
0.041691791 0.041688632 0.0043097492
0.00707951 0.00746004 0.01495808
0.014646284 0.002335442 0.015239397
0.025019776 0.00021910835 0.014872949
0.035056684 0.0026711626 0.01473897
0.042187963 0.0076852092 0.015113206
0.0022909166 0.014753644 0.015114789
0.046805393 0.014969061 0.014999697
0.00021523518 0.025074426 0.015240612
0.04878315 0.02516667 0.014803315
0.0026600671 0.035046235 0.015057822
0.046328478 0.035066437 0.014970469
0.0076376046 0.042120811 0.015194702
0.014716825 0.046694718 0.015150276
0.025155285 0.048782915 0.015077739
0.035328098 0.046181906 0.014980827
0.041862346 0.041677374 0.01485986
0.0072819921 0.0072478689 0.024803972
0.014803972 0.0022569105 0.025088115
0.025021836 0.00021325919 0.02503185
0.035041254 0.0026796558 0.024940889
0.04218553 0.0076924898 0.025305733
0.0022619576 0.014831801 0.025319025
0.046756297 0.014858535 0.024848374
0.00020457266 0.025087997 0.024717201
0.048789125 0.025063794 0.024893912
0.0027586622 0.035247922 0.024882305
0.046270821 0.03519135 0.024860054
0.0076430826 0.042137161 0.024775136
0.014977396 0.046805765 0.025056442
0.02496448 0.048782293 0.025074463
0.034998138 0.046355892 0.024824293
0.041710638 0.041822776 0.024915097
0.0071467678 0.0073878602 0.034878939
0.015092144 0.0021472739 0.034862731
0.025226722 0.00023324719 0.034937855
0.035425685 0.0028598581 0.035018869
0.042161155 0.0076614814 0.035058204
0.0022513268 0.014868843 0.034862965
0.04674805 0.014816253 0.035193872
0.00020340885 0.024947412 0.034963574
0.048786443 0.024954071 0.035053078
0.0026829366 0.035079606 0.034747038
0.046175167 0.035379175 0.034999631
0.0077236411 0.042209525 0.034975376
0.014833714 0.046743166 0.034990277
0.025133342 0.048773941 0.035043448
0.035312809 0.046201285 0.035136312
0.041810695 0.04172397 0.034964245
0.0073508727 0.0071948348 0.045186467
0.014755684 0.0022860898 0.045032926
0.024913972 0.00021788359 0.045032095
0.035058476 0.0026822586 0.044887934
0.042219851 0.0077199559 0.044807028
0.0022724408 0.014807349 0.044977672
0.046691932 0.014702663 0.045123309
0.00021093653 0.024939384 0.044878796
0.048768282 0.025207384 0.044944931
0.0026414511 0.034995664 0.04499292
0.046262544 0.035194866 0.045014564
0.0076589235 0.042153914 0.045048654
0.014784848 0.046723861 0.045164641
0.024831366 0.048801057 0.044781078
0.035425257 0.046138603 0.044897132
0.041837532 0.04169948 0.044925436
0.0071816687 0.0073557557 0.055107143
0.014904545 0.0022325744 0.054880686
0.025223833 0.00022063691 0.055085406
0.035191014 0.002748156 0.054761551
0.042099077 0.007586997 0.0548479
0.0022405912 0.014835183 0.054981884
0.046696007 0.014699149 0.055075418
0.00020808913 0.024930077 0.055036124
0.048789728 0.024909794 0.055061955
0.0027885311 0.03529219 0.054991253
0.046137262 0.035459541 0.05480485
0.0076770792 0.042167429 0.055060964
0.014821563 0.046747148 0.055213112
0.025105041 0.048787005 0.054846663
0.035122309 0.046276465 0.054958615
0.04178207 0.04175308 0.054998357
0.0072007021 0.0073372507 0.065223567
0.014918116 0.0022274859 0.06488087
0.025046675 0.00021511193 0.064811416
0.035243202 0.0027710821 0.06485451
0.042195179 0.0077030431 0.064847767
0.0022718117 0.014769072 0.06494119
0.046776153 0.014856537 0.065079756
0.00021017138 0.024975743 0.064820722
0.04877368 0.024871821 0.065070994
0.0026660864 0.035040282 0.065023892
0.046306737 0.035106044 0.064969555
0.0076292297 0.042118698 0.064996645
0.014691517 0.04668127 0.065000385
0.024941131 0.048796125 0.064822406
0.035437539 0.046129689 0.06505613
0.041829925 0.041706815 0.064957917
0.007380683 0.0071658245 0.074964583
0.014858481 0.002228485 0.074950702
0.025011888 0.00021514302 0.075044706
0.035488851 0.0028685569 0.074998967
0.042169213 0.007671508 0.074668497
0.0022759167 0.014780022 0.074967526
0.046763979 0.014857853 0.075083002
0.00022701688 0.024996374 0.074882925
0.048778806 0.025104044 0.074690841
0.0027833902 0.035315517 0.075133689
0.046282656 0.035164602 0.07509689
0.0077648079 0.042251457 0.074937195
0.014921565 0.04678103 0.075177394
0.024686618 0.048796423 0.07500919
0.035078477 0.046304926 0.075081028
0.041745495 0.041792393 0.074662201
0.0071594822 0.0073755649 0.085125573
0.014796534 0.0022567979 0.084897235
0.025018692 0.00020519328 0.084980913
0.035354838 0.0028114892 0.084976621
0.042084791 0.0075826752 0.085017838
0.0022304857 0.01490141 0.085071228
0.046858501 0.015086764 0.085062027
0.000209397 0.024806017 0.085206941
0.048785433 0.025047369 0.0851482
0.0027356832 0.035198536 0.0850254
0.046356924 0.034999132 0.085146531
0.0076752356 0.042171292 0.085156851
0.015212554 0.046907235 0.085051052
0.024797693 0.048796698 0.085241988
0.035273995 0.046226021 0.084817886
0.041799102 0.041733865 0.084664576
0.0074426723 0.0074432096 0.095472306
0.015015662 0.0038096081 0.096248634
0.02488287 0.0025547193 0.096644141
0.034821495 0.0040097069 0.096218906
0.042089973 0.007799732 0.094981454
0.0039030972 0.015102542 0.096521556
0.015169001 0.01507672 0.098999925
0.025094748 0.014790341 0.09899985
0.03523979 0.014900032 0.098999828
0.045526367 0.01497685 0.096333422
0.0027638886 0.02509 0.096812338
0.015082417 0.02503591 0.09899988
0.025102407 0.025213869 0.098999903
0.034888275 0.024925984 0.09899991
0.046676207 0.025055543 0.096732371
0.0043429243 0.035037003 0.096493341
0.014982034 0.035077337 0.098999962
0.025088087 0.034767769 0.09899994
0.034914933 0.034876663 0.09899991
0.045325145 0.034700789 0.096165411
0.0078141363 0.042074185 0.09526588
0.015017941 0.045437399 0.096202575
0.024970395 0.046571653 0.09677536
0.034933116 0.045212071 0.096101947
0.041721988 0.041659515 0.094998583
