# .PCD v0.7 - Point Cloud Data file format
VERSION 0.7
FIELDS x y z
SIZE 4 4 4
TYPE F F F
COUNT 1 1 1
WIDTH 66
HEIGHT 1
VIEWPOINT 0 0 0 1 0 0 0
POINTS 66
DATA ascii
0.0032807551 0.0034112036 0.0032948079
0.014963872 0.0024108477 0.0025880283
0.025004873 0.0025349346 0.0024610334
0.034940656 0.0024449946 0.0025194744
0.046244867 0.0033223291 0.0034747666
0.0025848828 0.014978164 0.0024388805
0.01490416 0.014943412 0
0.024960639 0.015083704 0
0.034917887 0.015099928 0
0.046893593 0.015053752 0.0026725731
0.0024604911 0.025015784 0.0025558562
0.015088365 0.025093107 0
0.024927892 0.024938475 0
0.03486852 0.024817219 0
0.046817902 0.025136504 0.0025329306
0.002572298 0.034977734 0.0024727432
0.014852182 0.034993961 0
0.024847222 0.035042468 0
0.034996562 0.034986865 0
0.046715889 0.034998495 0.0024590183
0.0033780942 0.046197541 0.0034278971
0.015045057 0.046869393 0.0026151077
0.024998246 0.04684566 0.0026469564
0.034961957 0.046833936 0.0025882386
0.046007738 0.046113901 0.0034576366
0.0022701134 0.0026668797 0.015014165
0.015164657 0 0.015077657
0.024904525 0 0.014976136
0.034972265 0 0.014943454
0.046860233 0.0026505704 0.015020541
0 0.01481964 0.014855857
0.048999805 0.015095991 0.014969648
0 0.025004748 0.014816118
0.048999805 0.025119219 0.014952978
0 0.034931671 0.015243951
0.048999805 0.034923907 0.015032851
0.0026677677 0.046919931 0.014932362
0.014935687 0.048999805 0.014949622
0.024929808 0.048999805 0.014978898
0.034978136 0.048999805 0.015098305
0.046790015 0.046811745 0.014967959
0.0039932667 0.0037569611 0.023799177
0.015035374 0.0031728505 0.024167772
0.025068697 0.0034026077 0.024199007
0.034968391 0.0033416208 0.02412742
0.045758445 0.0037667227 0.023711085
0.0033558886 0.0149716 0.024136472
0.015039675 0.014928924 0.024999758
0.025035752 0.015050682 0.024999749
0.035090994 0.015033606 0.024999745
0.045996543 0.01504303 0.024082106
0.0034706281 0.024931885 0.024205035
0.014985105 0.02499165 0.024999758
0.025042281 0.025030006 0.024999755
0.034985781 0.024934821 0.024999755
0.046192192 0.024742324 0.02413075
0.0034990208 0.03501422 0.024205156
0.014779007 0.035025217 0.024999755
0.024947701 0.035127986 0.024999756
0.035076138 0.034869988 0.024999751
0.046054021 0.034987647 0.0241272
0.003801049 0.045717962 0.0237568
0.015119641 0.04605557 0.02412785
0.02503648 0.046146963 0.024125174
0.034997843 0.045895297 0.024171181
0.04571851 0.045568597 0.023710275
