# .PCD v0.7 - Point Cloud Data file format
VERSION 0.7
FIELDS x y z
SIZE 4 4 4
TYPE F F F
COUNT 1 1 1
WIDTH 178
HEIGHT 1
VIEWPOINT 0 0 0 1 0 0 0
POINTS 178
DATA ascii
0.0031989315 0.0034752858 0.0033204395
0.014984855 0.0025927357 0.0023594797
0.025038432 0.0025750855 0.0024026844
0.034987077 0.0025106715 0.0023823169
0.046252929 0.0034052192 0.0035904415
0.0026637402 0.015087744 0.002611039
0.014744289 0.014788874 0
0.025090624 0.014989778 0
0.03513157 0.01505027 0
0.046874873 0.01495366 0.0026634266
0.0025130326 0.024929462 0.0024169099
0.015179341 0.024895916 0
0.024846118 0.025028054 0
0.034757778 0.024938282 0
0.046825893 0.025186107 0.0026672608
0.0024747313 0.035008803 0.0027054413
0.015102962 0.035068911 0
0.025221528 0.034967355 0
0.03503425 0.035135824 0
0.046827141 0.035123248 0.0024667103
0.0032440342 0.046209678 0.0034886582
0.014977129 0.046992823 0.0028063478
0.024909666 0.046775479 0.0026620026
0.034855459 0.04700622 0.0025220634
0.046035036 0.045979649 0.0034594953
0.002582096 0.002260329 0.015083333
0.015048095 0 0.014714362
0.025079031 0 0.014965925
0.034821935 0 0.015055932
0.046761427 0.0025371679 0.014875881
0 0.01514786 0.01517682
0.048999835 0.015061737 0.01491375
0 0.025273133 0.015160827
0.048999831 0.025054511 0.015024524
0 0.034674343 0.015023895
0.048999831 0.035097934 0.014821021
0.0026230305 0.046931826 0.014980568
0.014925967 0.048999831 0.015312761
0.025288774 0.048999831 0.015252195
0.03491449 0.048999831 0.015086194
0.046624042 0.046672549 0.014941722
0.0023288231 0.0025237519 0.024913182
0.014768075 0 0.025189525
0.024981124 0 0.02506491
0.034897309 0 0.025218718
0.046941075 0.0026279707 0.024895709
0 0.01487485 0.024932316
0.048999827 0.015141118 0.024845703
0 0.025101684 0.025131987
0.048999831 0.02507725 0.025140015
0 0.035171758 0.025132416
0.048999831 0.034823745 0.024978761
0.0027140707 0.046800502 0.024903636
0.014920391 0.048999835 0.025121642
0.024906956 0.048999831 0.025137868
0.034755066 0.048999831 0.024705408
0.046935666 0.046642113 0.024849843
0.0024617419 0.0023876543 0.035073001
0.015021795 0 0.034886926
0.025242105 0 0.035118323
0.035005677 0 0.034821715
0.047039516 0.0027221635 0.03505652
0 0.015213836 0.035172727
0.048999831 0.015094878 0.034987684
0 0.025087709 0.03478856
0.048999831 0.024629673 0.034904726
0 0.035111118 0.034825545
0.048999831 0.03497158 0.034880098
0.0027833108 0.047001347 0.035135325
0.015031796 0.048999831 0.034743976
0.024901172 0.048999831 0.034870554
0.034960702 0.048999831 0.034840334
0.046686616 0.046751175 0.035059523
0.0026099514 0.0024141201 0.045066964
0.01505521 0 0.045183502
0.024872737 0 0.044893511
0.034864526 0 0.045131944
0.046955548 0.0027184591 0.044871643
0 0.014829569 0.045065384
0.048999831 0.015059171 0.044773694
0 0.02505026 0.045190591
0.048999827 0.024873056 0.044924684
0 0.034949623 0.044892151
0.048999831 0.034835178 0.045180146
0.002604441 0.046818826 0.045016542
0.014920465 0.048999831 0.045210481
0.024864495 0.048999835 0.044797998
0.035126284 0.048999835 0.045030173
0.04692091 0.046587855 0.044917446
0.0023328357 0.0026779205 0.054850295
0.014924414 0 0.054887626
0.025251897 0 0.054865129
0.034935523 0 0.054943934
0.04696019 0.0026302403 0.055006724
0 0.014806543 0.054847032
0.048999835 0.015066451 0.054770302
0 0.024959585 0.054980684
0.048999835 0.024884302 0.054810271
0 0.034994632 0.055144694
0.048999831 0.035060264 0.055026338
0.0026065118 0.046769518 0.055100415
0.014922234 0.048999831 0.054851189
0.025095988 0.048999835 0.055250131
0.034960732 0.048999831 0.055087321
0.04676025 0.046701454 0.05501812
0.002651039 0.0024406046 0.06499251
0.015131466 0 0.064805612
0.025239686 0 0.064958759
0.034978889 0 0.064878903
0.046792373 0.0025462315 0.064906567
0 0.014844882 0.064860918
0.048999835 0.015230242 0.064832963
0 0.025080889 0.064770564
0.048999835 0.024824239 0.065189026
0 0.035286006 0.065016448
0.048999835 0.03494291 0.06510888
0.0027310858 0.046991967 0.064920433
0.014884999 0.048999835 0.064901836
0.024816364 0.048999831 0.065096319
0.034987081 0.048999827 0.064854868
0.046754193 0.046666011 0.065061666
0.0023576524 0.0026717496 0.074752457
0.015030208 0 0.07500504
0.024965936 0 0.075124942
0.035186622 0 0.075285144
0.046964299 0.0027462605 0.074880317
0 0.014783796 0.075188205
0.048999835 0.014858023 0.074964315
0 0.025048869 0.074821442
0.048999835 0.025119642 0.07464052
0 0.035104949 0.074907511
0.048999831 0.034990326 0.074831575
0.0026568861 0.046788901 0.075017534
0.015178191 0.048999831 0.075076737
0.024925055 0.048999831 0.074947692
0.034650419 0.048999831 0.075036615
0.046800811 0.046712592 0.075100139
0.0026305981 0.0023099124 0.085053742
0.015012942 0 0.084777661
0.025021244 0 0.085474186
0.034741424 0 0.085001037
0.046787765 0.002572028 0.085056141
0 0.01475272 0.084943227
0.048999835 0.014993354 0.08507064
0 0.025049334 0.084872231
0.048999835 0.025099775 0.084903359
0 0.03503222 0.085060373
0.048999835 0.034852061 0.08511284
0.0025587627 0.046842434 0.084830828
0.015040965 0.048999835 0.084914379
0.024898564 0.048999835 0.08498688
0.03519598 0.048999831 0.08480344
0.04659811 0.046987265 0.085078038
0.0032283382 0.0035870462 0.096030429
0.015174834 0.0026438085 0.096928731
0.024930665 0.0027249127 0.097022966
0.034902353 0.0025569464 0.096795119
0.045956638 0.0032606502 0.09616565
0.0027958497 0.014919159 0.097026221
0.014707529 0.014887847 0.099000126
0.02484541 0.015098022 0.099000208
0.034900408 0.014930149 0.099000119
0.046833239 0.015015848 0.096754223
0.0027323435 0.024944782 0.096968599
0.014883127 0.024879118 0.099000141
0.024906183 0.024864892 0.099000178
0.034826748 0.025097901 0.099000275
0.046504043 0.024956053 0.096922554
0.0026251429 0.035122443 0.096908741
0.014958366 0.035028618 0.099000223
0.024837611 0.034793399 0.099000141
0.035000488 0.035024058 0.099000223
0.047027286 0.034682117 0.096577734
0.0035168936 0.046100393 0.096069202
0.014899488 0.046829183 0.096719779
0.024942335 0.04673915 0.096695945
0.034890268 0.046798728 0.096824892
0.046008375 0.046114117 0.095948592
